# .PCD v.7 - Point Cloud Data file format
FIELDS x y z
SIZE 4 4 4
TYPE F F F
COUNT 1 1 1
WIDTH 1814
HEIGHT 1
VIEWPOINT 0 0 0 1 0 0 0
POINTS 1814
DATA ascii
0.05175 0.146572 0.0535622
0.05225 0.146571 0.0534424
0.05275 0.146569 0.0533225
0.05325 0.146566 0.0530829
0.05375 0.146566 0.0530829
0.05425 0.146566 0.0530829
0.05475 0.146566 0.0530829
0.05525 0.146566 0.0530829
0.05575 0.146568 0.0532027
0.05625 0.146564 0.0529631
0.05675 0.146564 0.0529631
0.05725 0.146564 0.0529631
0.05775 0.146564 0.0529631
0.05825 0.146563 0.0528433
0.05875 0.146561 0.0527235
0.05925 0.146561 0.0527235
0.05975 0.146559 0.0526037
0.06025 0.146558 0.0524839
0.06075 0.146555 0.0522443
0.06125 0.146551 0.0520047
0.06175 0.146543 0.0514056
0.06225 0.146538 0.0510462
0.06275 0.146529 0.0503273
0.06325 0.146513 0.0491293
0.06375 0.146496 0.0480439
0.06425 0.146475 0.0472821
0.06475 0.146475 0.0472821
0.06525 0.146467 0.0470282
0.06575 0.146464 0.0469012
0.06625 0.146464 0.0469012
0.06675 0.14646 0.0467743
0.06725 0.146453 0.0465203
0.06775 0.146443 0.0461395
0.06825 0.146425 0.0455047
0.06875 0.146385 0.0441081
0.06925 0.146353 0.0429655
0.06975 0.146339 0.0424577
-0.0175 0.145747 -0.00706842
-0.017 0.145779 -0.0057191
-0.0165 0.1458 -0.00477459
-0.016 0.145819 -0.00396501
-0.0155 0.145832 -0.00342529
-0.015 0.145844 -0.00288557
-0.0145 0.14585 -0.00261572
-0.014 0.145866 -0.00194106
-0.0135 0.145872 -0.00167121
-0.013 0.145884 -0.00113148
-0.0125 0.145891 -0.000861615
-0.012 0.145903 -0.000321895
-0.0115 0.145913 8.28952e-05
-0.011 0.145922 0.000487678
-0.0105 0.145934 0.00102741
-0.01 0.145944 0.00143219
-0.0095 0.14595 0.00170204
-0.009 0.145956 0.00197192
-0.0085 0.145969 0.00251164
-0.008 0.145975 0.00278149
-0.0075 0.145987 0.00332121
-0.007 0.145994 0.00359106
-0.0065 0.146003 0.00399587
-0.006 0.146018 0.00467051
-0.0055 0.146028 0.00507529
-0.005 0.146034 0.00534516
-0.0045 0.146043 0.00574996
-0.004 0.146053 0.00614677
-0.0035 0.146064 0.00652763
-0.003 0.146071 0.00678155
-0.0025 0.146081 0.00716242
-0.002 0.146092 0.00754329
-0.0015 0.146099 0.00779721
-0.001 0.146102 0.00792415
-0.0005 0.146116 0.00843198
0 0.146127 0.00881285
0.0005 0.146137 0.00919373
0.001 0.146141 0.00932068
0.0015 0.146155 0.00982851
0.002 0.146204 0.0116059
0.0025 0.146231 0.0126216
0.003 0.146294 0.0149068
0.0035 0.146315 0.0156685
0.004 0.146333 0.0163033
0.0045 0.146354 0.017065
0.005 0.146368 0.0175729
0.0055 0.146382 0.0180807
0.006 0.146396 0.0185885
0.0065 0.146403 0.0188424
0.007 0.146413 0.0192233
0.0075 0.146427 0.0197311
0.008 0.146438 0.020112
0.0085 0.146452 0.0206198
0.009 0.146455 0.0207468
0.0095 0.146476 0.0215085
0.01 0.146487 0.0218894
0.0105 0.146501 0.0223972
0.011 0.146504 0.0225242
0.0115 0.147046 0.0422024
0.013 0.147281 0.053561
0.0135 0.147282 0.0536808
0.014 0.147287 0.0540402
0.0145 0.147287 0.0540402
0.015 0.147288 0.05416
0.0155 0.147291 0.0543996
0.016 0.147293 0.0545195
0.0165 0.147295 0.0546393
0.017 0.147298 0.0548789
0.0175 0.147299 0.0549987
0.018 0.147299 0.0549987
0.0185 0.147305 0.0554779
0.019 0.147307 0.0555977
0.0195 0.147305 0.0554779
0.02 0.147304 0.0553581
0.0205 0.147304 0.0553581
0.021 0.147305 0.0554779
0.0215 0.147309 0.0557176
0.022 0.147293 0.0545195
0.0225 0.14729 0.0542798
0.023 0.147291 0.0543996
0.0235 0.147291 0.0543996
0.024 0.147293 0.0545195
0.0245 0.147293 0.0545195
0.025 0.147288 0.05416
0.0255 0.147287 0.0540402
0.026 0.147287 0.0540402
0.0265 0.147285 0.0539204
0.027 0.147288 0.05416
0.0275 0.14729 0.0542798
0.028 0.14729 0.0542798
0.0285 0.147291 0.0543996
0.029 0.147293 0.0545195
0.0295 0.147293 0.0545195
0.03 0.147293 0.0545195
0.0305 0.147295 0.0546393
0.031 0.147295 0.0546393
0.0315 0.147296 0.0547591
0.032 0.147296 0.0547591
0.0325 0.147298 0.0548789
0.033 0.147298 0.0548789
0.0335 0.147299 0.0549987
0.034 0.147304 0.0553581
0.0345 0.147309 0.0557176
0.035 0.14731 0.0558374
0.0355 0.147312 0.0559572
0.036 0.14731 0.0558374
0.0365 0.147309 0.0557176
0.037 0.147309 0.0557176
0.0375 0.14731 0.0558374
0.038 0.147309 0.0557176
0.0385 0.147307 0.0555977
0.039 0.147309 0.0557176
0.0395 0.147309 0.0557176
0.04 0.147305 0.0554779
0.0405 0.147301 0.0551185
0.041 0.147301 0.0551185
0.0415 0.147298 0.0548789
0.042 0.147296 0.0547591
0.0425 0.147296 0.0547591
0.043 0.147298 0.0548789
0.0435 0.147299 0.0549987
0.044 0.147298 0.0548789
0.0445 0.147298 0.0548789
0.045 0.147296 0.0547591
0.0455 0.147293 0.0545195
0.046 0.14727 0.0527223
0.0465 0.147271 0.0528421
0.047 0.14727 0.0527223
0.0475 0.14727 0.0527223
0.048 0.147268 0.0526025
0.0485 0.147268 0.0526025
0.049 0.147268 0.0526025
0.0495 0.147268 0.0526025
0.05 0.147268 0.0526025
0.0505 0.147268 0.0526025
0.051 0.14727 0.0527223
0.0515 0.14727 0.0527223
0.052 0.14727 0.0527223
0.0525 0.147271 0.0528421
0.053 0.14727 0.0527223
0.0535 0.147268 0.0526025
0.054 0.147268 0.0526025
0.0545 0.147267 0.0524826
0.055 0.147267 0.0524826
0.0555 0.147267 0.0524826
0.056 0.147267 0.0524826
0.0565 0.147267 0.0524826
0.057 0.147267 0.0524826
0.0575 0.147267 0.0524826
0.058 0.147265 0.0523628
0.0585 0.147265 0.0523628
0.059 0.147264 0.052243
0.0595 0.147262 0.0521232
0.06 0.14726 0.0520034
0.0605 0.147256 0.051644
0.061 0.147254 0.0515242
0.0615 0.147248 0.0510449
0.062 0.147242 0.0505657
0.0625 0.147233 0.0498468
0.063 0.147217 0.0486486
0.0635 0.14719 0.0474077
0.064 0.147179 0.0470268
0.0645 0.147176 0.0468998
0.065 0.147169 0.0466459
0.0655 0.147165 0.046519
0.066 0.147162 0.046392
0.0665 0.147158 0.0462651
0.067 0.147155 0.0461381
0.0675 0.147141 0.0456303
0.068 0.147099 0.0441068
0.0685 0.147074 0.0432181
0.069 0.147046 0.0422024
-0.01725 0.14649 -0.00706927
-0.01675 0.146517 -0.00585489
-0.01625 0.146542 -0.00477543
-0.01575 0.146551 -0.00437065
-0.01525 0.146563 -0.00383092
-0.01475 0.146575 -0.0032912
-0.01425 0.146584 -0.00288641
-0.01375 0.146596 -0.00234669
-0.01325 0.146605 -0.0019419
-0.01275 0.146614 -0.00153711
-0.01225 0.146626 -0.000997379
-0.01175 0.146632 -0.000727534
-0.01125 0.146645 -0.000187807
-0.01075 0.146657 0.000351921
-0.01025 0.146666 0.000756711
-0.00975 0.146672 0.00102658
-0.00925 0.146684 0.00156631
-0.00875 0.14669 0.00183616
-0.00825 0.146699 0.00224095
-0.00775 0.146711 0.00278068
-0.00725 0.146717 0.00305054
-0.00675 0.146726 0.00345533
-0.00625 0.146739 0.00399506
-0.00575 0.146751 0.00453478
-0.00525 0.14676 0.00493957
-0.00475 0.146766 0.00520942
-0.00425 0.146775 0.00561421
-0.00375 0.146784 0.006019
-0.00325 0.146791 0.00627292
-0.00275 0.146801 0.00665379
-0.00225 0.146805 0.00678074
-0.00175 0.146815 0.0071616
-0.00125 0.146825 0.00754247
-0.00075 0.146832 0.00779638
-0.00025 0.146842 0.00817725
0.00025 0.146853 0.00855811
0.00075 0.146859 0.00881201
0.00125 0.146863 0.00893897
0.00175 0.146925 0.0112242
0.00225 0.146952 0.0122398
0.00275 0.147021 0.0147789
0.00325 0.147038 0.0154137
0.00375 0.147065 0.0164293
0.00425 0.147092 0.017445
0.00475 0.14711 0.0180797
0.00525 0.147116 0.0183336
0.00575 0.14713 0.0188414
0.00625 0.14714 0.0192223
0.00675 0.147151 0.0196032
0.00725 0.147161 0.019984
0.00775 0.147175 0.0204919
0.00825 0.147185 0.0208727
0.00875 0.147199 0.0213805
0.00925 0.147212 0.0218884
0.00975 0.147219 0.0221423
0.01025 0.147236 0.0227771
0.01075 0.147247 0.0231579
0.01125 0.147254 0.0234118
0.01175 0.147264 0.0237927
0.01225 0.147247 0.0231579
0.01375 0.147974 0.0523616
0.01425 0.147981 0.0529607
0.01475 0.147984 0.0532003
0.01525 0.147986 0.0533201
0.01575 0.147992 0.0537994
0.01625 0.147993 0.0539192
0.01675 0.147996 0.0541588
0.01725 0.147999 0.0543985
0.01775 0.148001 0.0545183
0.01825 0.147999 0.0543985
0.01875 0.147999 0.0543985
0.01925 0.148001 0.0545183
0.01975 0.148002 0.0546381
0.02025 0.148004 0.0547579
0.02075 0.147999 0.0543985
0.02125 0.147992 0.0537994
0.02175 0.14799 0.0536796
0.02225 0.14799 0.0536796
0.02275 0.147992 0.0537994
0.02325 0.14799 0.0536796
0.02375 0.14799 0.0536796
0.02425 0.14799 0.0536796
0.02475 0.147989 0.0535597
0.02525 0.147989 0.0535597
0.02575 0.14799 0.0536796
0.02625 0.147989 0.0535597
0.02675 0.147989 0.0535597
0.02725 0.147992 0.0537994
0.02775 0.147993 0.0539192
0.02825 0.147993 0.0539192
0.02875 0.147993 0.0539192
0.02925 0.147995 0.054039
0.02975 0.147995 0.054039
0.03025 0.147996 0.0541588
0.03075 0.147998 0.0542786
0.03125 0.147998 0.0542786
0.03175 0.147998 0.0542786
0.03225 0.147999 0.0543985
0.03275 0.147999 0.0543985
0.03325 0.147998 0.0542786
0.03375 0.147998 0.0542786
0.03425 0.147999 0.0543985
0.03475 0.148007 0.0549975
0.03525 0.148008 0.0551173
0.03575 0.148011 0.055357
0.03625 0.148011 0.055357
0.03675 0.14801 0.0552372
0.03725 0.148008 0.0551173
0.03775 0.148008 0.0551173
0.03825 0.148005 0.0548777
0.03875 0.148004 0.0547579
0.03925 0.148001 0.0545183
0.03975 0.147996 0.0541588
0.04025 0.147989 0.0535597
0.04075 0.147983 0.0530805
0.04125 0.147981 0.0529607
0.04175 0.147975 0.0524814
0.04225 0.147971 0.0521219
0.04275 0.14797 0.0520021
0.04325 0.147967 0.0517625
0.04375 0.147968 0.0518823
0.04425 0.14797 0.0520021
0.04475 0.147971 0.0521219
0.04525 0.14797 0.0520021
0.04575 0.147971 0.0521219
0.04625 0.147972 0.0522418
0.04675 0.147972 0.0522418
0.04725 0.147972 0.0522418
0.04775 0.147972 0.0522418
0.04825 0.147971 0.0521219
0.04875 0.147971 0.0521219
0.04925 0.147972 0.0522418
0.04975 0.147972 0.0522418
0.05025 0.147972 0.0522418
0.05075 0.147972 0.0522418
0.05125 0.147972 0.0522418
0.05175 0.147972 0.0522418
0.05225 0.147972 0.0522418
0.05275 0.147972 0.0522418
0.05325 0.147972 0.0522418
0.05375 0.147971 0.0521219
0.05425 0.147971 0.0521219
0.05475 0.147971 0.0521219
0.05525 0.14797 0.0520021
0.05575 0.14797 0.0520021
0.05625 0.14797 0.0520021
0.05675 0.14797 0.0520021
0.05725 0.147968 0.0518823
0.05775 0.147968 0.0518823
0.05825 0.147967 0.0517625
0.05875 0.147965 0.0516427
0.05925 0.147964 0.0515229
0.05975 0.147962 0.0514031
0.06025 0.147959 0.0511634
0.06075 0.147956 0.0509238
0.06125 0.147952 0.0505643
0.06175 0.147946 0.0500851
0.06225 0.147937 0.0493662
0.06275 0.147919 0.0480411
0.06325 0.147891 0.0470254
0.06375 0.147884 0.0467715
0.06425 0.147881 0.0466446
0.06475 0.147874 0.0463906
0.06525 0.147867 0.0461367
0.06575 0.147864 0.0460098
0.06625 0.14786 0.0458828
0.06675 0.147853 0.0456289
0.06725 0.14784 0.0451211
0.06775 0.147775 0.0427089
0.06825 0.147747 0.0416933
-0.0165 0.147262 -0.0057208
-0.016 0.147277 -0.00504616
-0.0155 0.147289 -0.00450643
-0.015 0.147301 -0.0039667
-0.0145 0.147306 -0.00369685
-0.014 0.147318 -0.00315713
-0.0135 0.147327 -0.00275233
-0.013 0.147336 -0.00234752
-0.0125 0.147345 -0.00194273
-0.012 0.147351 -0.00167288
-0.0115 0.147362 -0.00113315
-0.011 0.147374 -0.000593424
-0.0105 0.147386 -5.36963e-05
-0.01 0.147398 0.000486031
-0.0095 0.147407 0.000890821
-0.009 0.147412 0.00116067
-0.0085 0.147421 0.00156549
-0.008 0.147433 0.00210521
-0.0075 0.147442 0.00251
-0.007 0.147451 0.00291479
-0.0065 0.14746 0.00331958
-0.006 0.147471 0.00385931
-0.0055 0.14748 0.0042641
-0.005 0.147489 0.0046689
-0.0045 0.147498 0.00507368
-0.004 0.14751 0.00561342
-0.0035 0.147518 0.0060182
-0.003 0.147522 0.00614516
-0.0025 0.147525 0.00627211
-0.002 0.147532 0.00652602
-0.0015 0.147539 0.00677993
-0.001 0.147552 0.00728774
-0.0005 0.147559 0.00754165
0 0.147569 0.0079225
0.0005 0.147575 0.00817642
0.001 0.147579 0.00830336
0.0015 0.147629 0.0102077
0.002 0.14768 0.012112
0.0025 0.147747 0.014651
0.003 0.14776 0.0151588
0.0035 0.14778 0.0159205
0.004 0.147827 0.0176979
0.0045 0.147844 0.0183327
0.005 0.147854 0.0187135
0.0055 0.147868 0.0192213
0.006 0.147874 0.0194752
0.0065 0.147888 0.019983
0.007 0.147898 0.0203639
0.0075 0.147911 0.0208717
0.008 0.147925 0.0213795
0.0085 0.147935 0.0217604
0.009 0.147945 0.0221412
0.0095 0.147952 0.0223952
0.01 0.147968 0.0230299
0.0105 0.147982 0.0235377
0.011 0.147989 0.0237916
0.0115 0.148002 0.0242995
0.012 0.148015 0.0248073
0.0125 0.148022 0.0250612
0.013 0.148015 0.0248073
0.015 0.148683 0.0523603
0.0155 0.148686 0.0526
0.016 0.148689 0.0528396
0.0165 0.148691 0.0530793
0.017 0.148696 0.0534387
0.0175 0.148697 0.0535585
0.018 0.148698 0.0536784
0.0185 0.148698 0.0536784
0.019 0.1487 0.0537982
0.0195 0.1487 0.0537982
0.02 0.1487 0.0537982
0.0205 0.148697 0.0535585
0.021 0.148693 0.0531991
0.0215 0.148691 0.0530793
0.022 0.148691 0.0530793
0.0225 0.148693 0.0531991
0.023 0.148693 0.0531991
0.0235 0.148693 0.0531991
0.024 0.148691 0.0530793
0.0245 0.14869 0.0529594
0.025 0.14869 0.0529594
0.0255 0.14869 0.0529594
0.026 0.148691 0.0530793
0.0265 0.148691 0.0530793
0.027 0.148693 0.0531991
0.0275 0.148696 0.0534387
0.028 0.148696 0.0534387
0.0285 0.148697 0.0535585
0.029 0.148697 0.0535585
0.0295 0.148697 0.0535585
0.03 0.148698 0.0536784
0.0305 0.1487 0.0537982
0.031 0.148701 0.053918
0.0315 0.148701 0.053918
0.032 0.148701 0.053918
0.0325 0.148703 0.0540378
0.033 0.148701 0.053918
0.0335 0.1487 0.0537982
0.034 0.1487 0.0537982
0.0345 0.148698 0.0536784
0.035 0.1487 0.0537982
0.0355 0.148703 0.0540378
0.036 0.148707 0.0543973
0.0365 0.148707 0.0543973
0.037 0.148704 0.0541576
0.0375 0.148703 0.0540378
0.038 0.148698 0.0536784
0.0385 0.148693 0.0531991
0.039 0.148689 0.0528396
0.0395 0.148686 0.0526
0.04 0.148681 0.0522405
0.0405 0.148683 0.0523603
0.041 0.14868 0.0521207
0.0415 0.148676 0.0517612
0.042 0.148671 0.0514018
0.0425 0.148671 0.0514018
0.043 0.14867 0.0512819
0.0435 0.14867 0.0512819
0.044 0.148671 0.0514018
0.0445 0.148673 0.0515216
0.045 0.148673 0.0515216
0.0455 0.148673 0.0515216
0.046 0.148674 0.0516414
0.0465 0.148674 0.0516414
0.047 0.148674 0.0516414
0.0475 0.148674 0.0516414
0.048 0.148674 0.0516414
0.0485 0.148674 0.0516414
0.049 0.148674 0.0516414
0.0495 0.148673 0.0515216
0.05 0.148674 0.0516414
0.0505 0.148676 0.0517612
0.051 0.148677 0.0518811
0.0515 0.148677 0.0518811
0.052 0.148677 0.0518811
0.0525 0.148677 0.0518811
0.053 0.148677 0.0518811
0.0535 0.148676 0.0517612
0.054 0.148676 0.0517612
0.0545 0.148674 0.0516414
0.055 0.148676 0.0517612
0.0555 0.148674 0.0516414
0.056 0.148674 0.0516414
0.0565 0.148673 0.0515216
0.057 0.148671 0.0514018
0.0575 0.148671 0.0514018
0.058 0.14867 0.0512819
0.0585 0.148669 0.0511621
0.059 0.148667 0.0510423
0.0595 0.148666 0.0509225
0.06 0.148663 0.0506829
0.0605 0.14866 0.0504432
0.061 0.148656 0.0500837
0.0615 0.14865 0.0496045
0.062 0.148642 0.0488855
0.0625 0.1486 0.0468971
0.063 0.148593 0.0466432
0.0635 0.148586 0.0463893
0.064 0.148583 0.0462623
0.0645 0.148576 0.0460084
0.065 0.148569 0.0457545
0.0655 0.148563 0.0455006
0.066 0.148556 0.0452467
0.0665 0.148553 0.0451197
0.067 0.148526 0.0441041
-0.01575 0.148007 -0.00558674
-0.01525 0.148024 -0.00477713
-0.01475 0.148036 -0.00423741
-0.01425 0.148044 -0.00383261
-0.01375 0.148053 -0.00342782
-0.01325 0.148061 -0.00302303
-0.01275 0.14807 -0.00261824
-0.01225 0.148076 -0.00234836
-0.01175 0.148084 -0.00194357
-0.01125 0.148096 -0.00140384
-0.01075 0.148104 -0.000999041
-0.01025 0.148118 -0.000324383
-0.00975 0.148127 8.04141e-05
-0.00925 0.148138 0.000620142
-0.00875 0.148144 0.000890002
-0.00825 0.148156 0.00142973
-0.00775 0.148164 0.00183452
-0.00725 0.148176 0.00237425
-0.00675 0.148181 0.00264411
-0.00625 0.148193 0.00318383
-0.00575 0.148204 0.00372357
-0.00525 0.14821 0.00399344
-0.00475 0.148218 0.00439823
-0.00425 0.148227 0.00480302
-0.00375 0.148239 0.00534275
-0.00325 0.148244 0.00561261
-0.00275 0.148247 0.00574755
-0.00225 0.14825 0.00588249
-0.00175 0.148256 0.00614436
-0.00125 0.148263 0.00639827
-0.00075 0.148276 0.00690608
-0.00025 0.148282 0.00715997
0.00025 0.148292 0.00754083
0.00075 0.148296 0.00766778
0.00125 0.148361 0.0102068
0.00175 0.148414 0.012238
0.00225 0.148457 0.0138884
0.00275 0.148483 0.014904
0.00325 0.148493 0.0152848
0.00375 0.148559 0.0178239
0.00425 0.148578 0.0185856
0.00475 0.148595 0.0192203
0.00525 0.148601 0.0194742
0.00575 0.148614 0.019982
0.00625 0.148628 0.0204898
0.00675 0.148631 0.0206168
0.00725 0.148647 0.0212516
0.00775 0.148661 0.0217594
0.00825 0.148667 0.0220133
0.00875 0.14868 0.0225211
0.00925 0.148687 0.022775
0.00975 0.148703 0.0234097
0.01025 0.148713 0.0237906
0.01075 0.148723 0.0241714
0.01125 0.148736 0.0246793
0.01175 0.148749 0.0251871
0.01225 0.148762 0.0256948
0.01275 0.148772 0.0260757
0.01325 0.148776 0.0262026
0.01375 0.148759 0.0255679
0.01525 0.149321 0.0472765
0.01575 0.149348 0.0485247
0.01625 0.149386 0.0518798
0.01675 0.14939 0.0522392
0.01725 0.149394 0.0525987
0.01775 0.149394 0.0525987
0.01825 0.149397 0.0528384
0.01875 0.149398 0.0529582
0.01925 0.1494 0.053078
0.01975 0.149398 0.0529582
0.02025 0.149397 0.0528384
0.02075 0.149394 0.0525987
0.02125 0.149393 0.0524789
0.02175 0.149393 0.0524789
0.02225 0.149393 0.0524789
0.02275 0.149394 0.0525987
0.02325 0.149393 0.0524789
0.02375 0.149393 0.0524789
0.02425 0.149393 0.0524789
0.02475 0.149392 0.0523591
0.02525 0.149392 0.0523591
0.02575 0.149393 0.0524789
0.02625 0.149393 0.0524789
0.02675 0.149394 0.0525987
0.02725 0.149396 0.0527186
0.02775 0.149397 0.0528384
0.02825 0.149398 0.0529582
0.02875 0.149401 0.0531979
0.02925 0.1494 0.053078
0.02975 0.1494 0.053078
0.03025 0.1494 0.053078
0.03075 0.1494 0.053078
0.03125 0.149401 0.0531979
0.03175 0.149404 0.0534375
0.03225 0.149404 0.0534375
0.03275 0.149404 0.0534375
0.03325 0.149401 0.0531979
0.03375 0.149401 0.0531979
0.03425 0.1494 0.053078
0.03475 0.149397 0.0528384
0.03525 0.149397 0.0528384
0.03575 0.149397 0.0528384
0.03625 0.1494 0.053078
0.03675 0.149401 0.0531979
0.03725 0.1494 0.053078
0.03775 0.149397 0.0528384
0.03825 0.149393 0.0524789
0.03875 0.149392 0.0523591
0.03925 0.149388 0.0519996
0.03975 0.149385 0.05176
0.04025 0.149382 0.0515203
0.04075 0.149378 0.0511608
0.04125 0.149375 0.0509212
0.04175 0.149374 0.0508013
0.04225 0.149374 0.0508013
0.04275 0.149374 0.0508013
0.04325 0.149374 0.0508013
0.04375 0.149374 0.0508013
0.04425 0.149375 0.0509212
0.04475 0.149375 0.0509212
0.04525 0.149375 0.0509212
0.04575 0.149374 0.0508013
0.04625 0.149375 0.0509212
0.04675 0.149375 0.0509212
0.04725 0.149375 0.0509212
0.04775 0.149378 0.0511608
0.04825 0.14938 0.0512807
0.04875 0.149378 0.0511608
0.04925 0.149378 0.0511608
0.04975 0.149377 0.051041
0.05025 0.149377 0.051041
0.05075 0.149378 0.0511608
0.05125 0.149378 0.0511608
0.05175 0.14938 0.0512807
0.05225 0.14938 0.0512807
0.05275 0.149381 0.0514005
0.05325 0.149381 0.0514005
0.05375 0.14938 0.0512807
0.05425 0.14938 0.0512807
0.05475 0.14938 0.0512807
0.05525 0.149378 0.0511608
0.05575 0.149378 0.0511608
0.05625 0.149378 0.0511608
0.05675 0.149377 0.051041
0.05725 0.149375 0.0509212
0.05775 0.149375 0.0509212
0.05825 0.149374 0.0508013
0.05875 0.149371 0.0505617
0.05925 0.14937 0.0504419
0.05975 0.149367 0.0502022
0.06025 0.149363 0.0498428
0.06075 0.149361 0.0496031
0.06125 0.149355 0.0491238
0.06175 0.149318 0.0471496
0.06225 0.149292 0.046134
0.06275 0.149292 0.046134
0.06325 0.149289 0.046007
0.06375 0.149279 0.0456262
0.06425 0.149275 0.0454992
0.06475 0.149262 0.0449914
0.06525 0.149259 0.0448645
0.06575 0.149239 0.0441028
0.06625 0.149233 0.0438489
-0.0145 0.148768 -0.00464307
-0.014 0.148776 -0.00423826
-0.0135 0.148788 -0.00369854
-0.013 0.148799 -0.00315881
-0.0125 0.148807 -0.00275401
-0.012 0.148812 -0.00248414
-0.0115 0.148824 -0.0019444
-0.011 0.148829 -0.00167455
-0.0105 0.14884 -0.00113481
-0.01 0.148854 -0.000460148
-0.0095 0.148862 -5.53504e-05
-0.009 0.148871 0.00034944
-0.0085 0.148879 0.000754237
-0.008 0.148887 0.00115903
-0.0075 0.148898 0.00169877
-0.007 0.148907 0.00210358
-0.0065 0.148915 0.00250837
-0.006 0.148926 0.00304811
-0.0055 0.148935 0.0034529
-0.005 0.14894 0.00372276
-0.0045 0.148954 0.00439742
-0.004 0.148957 0.00453236
-0.0035 0.148968 0.00507207
-0.003 0.148973 0.00534195
-0.0025 0.148973 0.00534195
-0.002 0.148976 0.00547688
-0.0015 0.148982 0.00574674
-0.001 0.148987 0.0060166
-0.0005 0.149 0.0065244
0 0.149013 0.0070322
0.0005 0.149016 0.00715916
0.001 0.149007 0.00677831
0.0015 0.149119 0.0112215
0.002 0.149187 0.0138875
0.0025 0.149193 0.0141414
0.003 0.149209 0.0147761
0.0035 0.149286 0.0178229
0.004 0.149309 0.0187116
0.0045 0.149328 0.0194732
0.005 0.149338 0.0198541
0.0055 0.149351 0.0203619
0.006 0.14936 0.0207427
0.0065 0.149367 0.0209966
0.007 0.14938 0.0215044
0.0075 0.149396 0.0221392
0.008 0.149402 0.0223931
0.0085 0.149412 0.0227739
0.009 0.149422 0.0231548
0.0095 0.149435 0.0236626
0.01 0.149444 0.0240434
0.0105 0.149454 0.0244243
0.011 0.14947 0.025059
0.0115 0.14948 0.0254399
0.012 0.149492 0.0259477
0.0125 0.149502 0.0263285
0.013 0.149509 0.0265824
0.0135 0.149521 0.0270902
0.014 0.149515 0.0268363
0.016 0.150056 0.0481638
0.0165 0.150061 0.0486431
0.017 0.150063 0.0488828
0.0175 0.150065 0.0490026
0.018 0.150094 0.0517587
0.0185 0.150097 0.0519984
0.019 0.150099 0.052238
0.0195 0.150098 0.0521182
0.02 0.150098 0.0521182
0.0205 0.150097 0.0519984
0.021 0.150094 0.0517587
0.0215 0.150095 0.0518785
0.022 0.150094 0.0517587
0.0225 0.150094 0.0517587
0.023 0.150094 0.0517587
0.0235 0.150094 0.0517587
0.024 0.150093 0.0516388
0.0245 0.15009 0.0513992
0.025 0.150088 0.0511595
0.0255 0.15009 0.0513992
0.026 0.150094 0.0517587
0.0265 0.150094 0.0517587
0.027 0.150097 0.0519984
0.0275 0.150098 0.0521182
0.028 0.150098 0.0521182
0.0285 0.150097 0.0519984
0.029 0.150102 0.0524776
0.0295 0.150102 0.0524776
0.03 0.150102 0.0524776
0.0305 0.150102 0.0524776
0.031 0.150101 0.0523578
0.0315 0.150099 0.052238
0.032 0.150097 0.0519984
0.0325 0.150103 0.0525975
0.033 0.150103 0.0525975
0.0335 0.150103 0.0525975
0.034 0.150101 0.0523578
0.0345 0.150099 0.052238
0.035 0.150097 0.0519984
0.0355 0.150095 0.0518785
0.036 0.150093 0.0516388
0.0365 0.150095 0.0518785
0.037 0.150097 0.0519984
0.0375 0.150097 0.0519984
0.038 0.150097 0.0519984
0.0385 0.150095 0.0518785
0.039 0.150092 0.051519
0.0395 0.15009 0.0513992
0.04 0.150088 0.0511595
0.0405 0.150084 0.0508
0.041 0.15008 0.0504406
0.0415 0.150076 0.0500811
0.042 0.150075 0.0499612
0.0425 0.150076 0.0500811
0.043 0.150077 0.0502009
0.0435 0.150077 0.0502009
0.044 0.150079 0.0503207
0.0445 0.15008 0.0504406
0.045 0.15008 0.0504406
0.0455 0.15008 0.0504406
0.046 0.15008 0.0504406
0.0465 0.15008 0.0504406
0.047 0.150079 0.0503207
0.0475 0.150079 0.0503207
0.048 0.15008 0.0504406
0.0485 0.150083 0.0506802
0.049 0.150083 0.0506802
0.0495 0.150083 0.0506802
0.05 0.150081 0.0505604
0.0505 0.150081 0.0505604
0.051 0.15008 0.0504406
0.0515 0.150081 0.0505604
0.052 0.150081 0.0505604
0.0525 0.150083 0.0506802
0.053 0.150083 0.0506802
0.0535 0.150084 0.0508
0.054 0.150084 0.0508
0.0545 0.150084 0.0508
0.055 0.150083 0.0506802
0.0555 0.150084 0.0508
0.056 0.150081 0.0505604
0.0565 0.150081 0.0505604
0.057 0.15008 0.0504406
0.0575 0.150077 0.0502009
0.058 0.150076 0.0500811
0.0585 0.150075 0.0499612
0.059 0.150072 0.0497216
0.0595 0.150071 0.0496018
0.06 0.150068 0.0493621
0.0605 0.150065 0.0490026
0.061 0.150014 0.0465135
0.0615 0.149994 0.0457518
0.062 0.149991 0.0456248
0.0625 0.149988 0.0454979
0.063 0.149985 0.0453709
0.0635 0.149975 0.0449901
0.064 0.149959 0.0443553
0.0645 0.149953 0.0441014
0.065 0.149933 0.0433397
0.0655 0.149705 0.0343263
-0.01325 0.149515 -0.00437403
-0.01275 0.149533 -0.00342951
-0.01225 0.149542 -0.0030247
-0.01175 0.149552 -0.00248498
-0.01125 0.14956 -0.00208018
-0.01075 0.149568 -0.00167538
-0.01025 0.149576 -0.00127059
-0.00975 0.149587 -0.00073085
-0.00925 0.149598 -0.000191115
-0.00875 0.149603 7.87601e-05
-0.00825 0.149614 0.000618495
-0.00775 0.149622 0.00102329
-0.00725 0.14963 0.00142809
-0.00675 0.149636 0.00169795
-0.00625 0.149649 0.00237262
-0.00575 0.149657 0.00277742
-0.00525 0.14966 0.00291236
-0.00475 0.149671 0.00345208
-0.00425 0.149681 0.00399182
-0.00375 0.149687 0.00426168
-0.00325 0.149692 0.00453155
-0.00275 0.149697 0.00480141
-0.00225 0.1497 0.00493635
-0.00175 0.149705 0.0052062
-0.00125 0.149711 0.00547609
-0.00075 0.149714 0.00561101
-0.00025 0.149731 0.00639666
0.00025 0.149737 0.00665055
0.00075 0.149737 0.00665055
0.00125 0.149857 0.0114746
0.00175 0.149901 0.0132518
0.00225 0.149914 0.0137596
0.00275 0.149914 0.0137596
0.00325 0.150018 0.0179489
0.00375 0.150043 0.0189645
0.00425 0.150062 0.0197262
0.00475 0.150077 0.0203609
0.00525 0.150084 0.0206148
0.00575 0.150096 0.0211226
0.00625 0.150103 0.0213765
0.00675 0.150112 0.0217573
0.00725 0.150128 0.022392
0.00775 0.150134 0.0226459
0.00825 0.150143 0.0230268
0.00875 0.150153 0.0234076
0.00925 0.150169 0.0240424
0.00975 0.150178 0.0244232
0.01025 0.150184 0.0246771
0.01075 0.150197 0.0251849
0.01125 0.15021 0.0256927
0.01175 0.150213 0.0258196
0.01225 0.150228 0.0264544
0.01275 0.150235 0.0267083
0.01325 0.150251 0.027343
0.01375 0.150254 0.02747
0.01425 0.150254 0.02747
0.01475 0.150235 0.0267083
0.01675 0.150707 0.0457504
0.01725 0.150767 0.0481624
0.01775 0.150769 0.0484021
0.01825 0.150769 0.0484021
0.01875 0.150772 0.0486417
0.01925 0.15077 0.0485219
0.01975 0.15077 0.0485219
0.02025 0.150797 0.0511582
0.02075 0.150797 0.0511582
0.02125 0.150797 0.0511582
0.02175 0.150796 0.0510384
0.02225 0.150797 0.0511582
0.02275 0.150796 0.0510384
0.02325 0.150796 0.0510384
0.02375 0.150795 0.0509186
0.02425 0.150794 0.0507987
0.02475 0.150792 0.0506789
0.02525 0.15079 0.0504392
0.02575 0.150788 0.0501996
0.02625 0.150783 0.0497202
0.02675 0.150779 0.0493607
0.02725 0.150792 0.0506789
0.02775 0.150797 0.0511582
0.02825 0.150797 0.0511582
0.02875 0.1508 0.0513979
0.02925 0.150798 0.0512781
0.02975 0.150798 0.0512781
0.03025 0.150802 0.0516376
0.03075 0.150803 0.0517574
0.03125 0.1508 0.0513979
0.03175 0.150796 0.0510384
0.03225 0.150795 0.0509186
0.03275 0.150791 0.0505591
0.03325 0.1508 0.0513979
0.03375 0.1508 0.0513979
0.03425 0.150797 0.0511582
0.03475 0.150792 0.0506789
0.03525 0.15079 0.0504392
0.03575 0.150789 0.0503194
0.03625 0.15079 0.0504392
0.03675 0.150786 0.0500797
0.03725 0.150792 0.0506789
0.03775 0.150792 0.0506789
0.03825 0.150794 0.0507987
0.03875 0.150792 0.0506789
0.03925 0.150792 0.0506789
0.03975 0.150791 0.0505591
0.04025 0.150788 0.0501996
0.04075 0.150785 0.0499599
0.04125 0.150781 0.0496004
0.04175 0.150778 0.0492409
0.04225 0.150778 0.0492409
0.04275 0.150779 0.0493607
0.04325 0.15078 0.0494806
0.04375 0.150781 0.0496004
0.04425 0.150783 0.0497202
0.04475 0.150784 0.0498401
0.04525 0.150785 0.0499599
0.04575 0.150785 0.0499599
0.04625 0.150785 0.0499599
0.04675 0.150784 0.0498401
0.04725 0.150784 0.0498401
0.04775 0.150783 0.0497202
0.04825 0.150783 0.0497202
0.04875 0.150783 0.0497202
0.04925 0.150785 0.0499599
0.04975 0.150786 0.0500797
0.05025 0.150786 0.0500797
0.05075 0.150785 0.0499599
0.05125 0.150784 0.0498401
0.05175 0.150783 0.0497202
0.05225 0.150784 0.0498401
0.05275 0.150784 0.0498401
0.05325 0.150785 0.0499599
0.05375 0.150786 0.0500797
0.05425 0.150786 0.0500797
0.05475 0.150786 0.0500797
0.05525 0.150786 0.0500797
0.05575 0.150786 0.0500797
0.05625 0.150785 0.0499599
0.05675 0.150784 0.0498401
0.05725 0.150781 0.0496004
0.05775 0.150779 0.0493607
0.05825 0.150777 0.0491211
0.05875 0.150774 0.0488814
0.05925 0.150772 0.0486417
0.05975 0.150768 0.0482822
0.06025 0.150713 0.0460043
0.06075 0.150688 0.0449887
0.06125 0.150679 0.0446079
0.06175 0.150685 0.0448618
0.06225 0.150666 0.0441001
0.06275 0.150537 0.0388952
0.06325 0.150524 0.0383875
0.06375 0.150502 0.0374988
0.06425 0.150483 0.0367371
0.06475 0.150452 0.0354676
0.06525 0.150433 0.034706
-0.0115 0.150284 -0.00289061
-0.011 0.150297 -0.00221595
-0.0105 0.150302 -0.00194608
-0.01 0.150313 -0.00140634
-0.0095 0.150321 -0.00100154
-0.009 0.150334 -0.000326864
-0.0085 0.150339 -5.70044e-05
-0.008 0.150347 0.000347793
-0.0075 0.150355 0.000752591
-0.007 0.150362 0.00115739
-0.0065 0.150368 0.00142726
-0.006 0.150378 0.00196701
-0.0055 0.150388 0.00250674
-0.005 0.150391 0.00264166
-0.0045 0.150404 0.00331634
-0.004 0.150409 0.0035862
-0.0035 0.150417 0.00399102
-0.003 0.150422 0.00426087
-0.0025 0.150425 0.00439581
-0.002 0.150427 0.00453075
-0.0015 0.150435 0.00493555
-0.001 0.15044 0.00520541
-0.0005 0.150446 0.00547528
0 0.150459 0.00614195
0.0005 0.150462 0.0062689
0.001 0.150588 0.0114737
0.0015 0.150604 0.0121084
0.002 0.150635 0.0133779
0.0025 0.150715 0.0166785
0.003 0.150752 0.0182018
0.0035 0.15077 0.0189635
0.004 0.150795 0.0199791
0.0045 0.150813 0.0207407
0.005 0.150822 0.0211215
0.0055 0.150828 0.0213754
0.006 0.150838 0.0217563
0.0065 0.15085 0.0222641
0.007 0.150856 0.0225179
0.0075 0.150868 0.0230257
0.008 0.150878 0.0234066
0.0085 0.150884 0.0236605
0.009 0.150899 0.0242952
0.0095 0.150905 0.0245491
0.01 0.150915 0.0249299
0.0105 0.150924 0.0253108
0.011 0.150936 0.0258185
0.0115 0.150942 0.0260724
0.012 0.150958 0.0267072
0.0125 0.150961 0.0268341
0.013 0.150973 0.0273419
0.0135 0.150979 0.0275958
0.014 0.150985 0.0278497
0.0145 0.150982 0.0277227
0.015 0.150976 0.0274689
0.018 0.151456 0.0472724
0.0185 0.151469 0.0477802
0.019 0.151475 0.0480341
0.0195 0.151478 0.048161
0.02 0.151478 0.048161
0.0205 0.151478 0.048161
0.021 0.151478 0.048161
0.0215 0.151492 0.0495991
0.022 0.151496 0.0500784
0.0225 0.151495 0.0499586
0.023 0.151495 0.0499586
0.0235 0.151494 0.0498387
0.024 0.151494 0.0498387
0.0245 0.151494 0.0498387
0.025 0.151485 0.04888
0.0255 0.151479 0.0482808
0.026 0.151475 0.0480341
0.0265 0.151472 0.0479071
0.027 0.151475 0.0480341
0.0275 0.151469 0.0477802
0.028 0.151469 0.0477802
0.0285 0.151463 0.0475263
0.029 0.151498 0.0501982
0.0295 0.151499 0.0503181
0.03 0.151499 0.0503181
0.0305 0.151496 0.0500784
0.031 0.151498 0.0501982
0.0315 0.151498 0.0501982
0.032 0.151495 0.0499586
0.0325 0.151488 0.0492395
0.033 0.151484 0.0487602
0.0335 0.151484 0.0487602
0.034 0.151484 0.0487602
0.0345 0.151483 0.0486403
0.035 0.151483 0.0486403
0.0355 0.151485 0.04888
0.036 0.151487 0.0491197
0.0365 0.151491 0.0494792
0.037 0.15149 0.0493594
0.0375 0.15149 0.0493594
0.038 0.151491 0.0494792
0.0385 0.151491 0.0494792
0.039 0.151493 0.0497189
0.0395 0.151492 0.0495991
0.04 0.15149 0.0493594
0.0405 0.151488 0.0492395
0.041 0.151484 0.0487602
0.0415 0.15148 0.0484007
0.042 0.151479 0.0482808
0.0425 0.15148 0.0484007
0.043 0.151484 0.0487602
0.0435 0.151486 0.0489999
0.044 0.151487 0.0491197
0.0445 0.151488 0.0492395
0.045 0.151488 0.0492395
0.0455 0.15149 0.0493594
0.046 0.15149 0.0493594
0.0465 0.15149 0.0493594
0.047 0.15149 0.0493594
0.0475 0.151488 0.0492395
0.048 0.151488 0.0492395
0.0485 0.151487 0.0491197
0.049 0.151487 0.0491197
0.0495 0.151486 0.0489999
0.05 0.151486 0.0489999
0.0505 0.151488 0.0492395
0.051 0.151488 0.0492395
0.0515 0.151486 0.0489999
0.052 0.151485 0.04888
0.0525 0.151444 0.0467646
0.053 0.151441 0.0466377
0.0535 0.15148 0.0484007
0.054 0.15148 0.0484007
0.0545 0.151483 0.0486403
0.055 0.151486 0.0489999
0.0555 0.151485 0.04888
0.056 0.151485 0.04888
0.0565 0.151484 0.0487602
0.057 0.151483 0.0486403
0.0575 0.151481 0.0485205
0.058 0.151479 0.0482808
0.0585 0.151315 0.0414329
0.059 0.151426 0.0460029
0.0595 0.151306 0.0410521
0.06 0.151299 0.0407981
0.0605 0.151293 0.0405443
0.061 0.151287 0.0402904
0.0615 0.151278 0.0399095
0.062 0.151266 0.0394018
0.0625 0.151256 0.0390209
0.063 0.151244 0.0385131
0.0635 0.151226 0.0377515
0.064 0.151204 0.0368628
0.0645 0.151179 0.0358473
-0.00975 0.151039 -0.00208185
-0.00925 0.151044 -0.00181197
-0.00875 0.151065 -0.000732511
-0.00825 0.15107 -0.000462636
-0.00775 0.15108 7.71061e-05
-0.00725 0.151087 0.000481904
-0.00675 0.151097 0.00102165
-0.00625 0.151107 0.00156139
-0.00575 0.15111 0.00169631
-0.00525 0.151117 0.00210112
-0.00475 0.151125 0.00250592
-0.00425 0.151135 0.00304566
-0.00375 0.15114 0.00331552
-0.00325 0.151148 0.00372033
-0.00275 0.151153 0.0039902
-0.00225 0.151155 0.00412513
-0.00175 0.15116 0.004395
-0.00125 0.151165 0.00466487
-0.00075 0.15117 0.00493474
-0.00025 0.151178 0.00533954
0.00025 0.151185 0.00574435
0.00075 0.151308 0.010965
0.00125 0.151326 0.0117267
0.00175 0.151326 0.0117267
0.00225 0.151443 0.0166775
0.00275 0.151476 0.0180739
0.00325 0.1515 0.0190894
0.00375 0.151518 0.0198511
0.00425 0.151539 0.0207397
0.00475 0.151551 0.0212475
0.00525 0.15156 0.0216283
0.00575 0.151572 0.0221361
0.00625 0.151585 0.0226439
0.00675 0.151594 0.0230247
0.00725 0.151606 0.0235325
0.00775 0.151615 0.0239133
0.00825 0.151621 0.0241672
0.00875 0.151633 0.024675
0.00925 0.151636 0.0248019
0.00975 0.151645 0.0251828
0.01025 0.151654 0.0255636
0.01075 0.151663 0.0259444
0.01125 0.151669 0.0261983
0.01175 0.151681 0.0267061
0.01225 0.151687 0.02696
0.01275 0.151696 0.0273408
0.01325 0.151702 0.0275947
0.01375 0.151708 0.0278486
0.01425 0.151714 0.0281025
0.01475 0.151717 0.0282294
0.01525 0.151717 0.0282294
0.01575 0.151717 0.0282294
0.01625 0.151822 0.0326724
0.01875 0.15212 0.0452399
0.01925 0.152162 0.0470171
0.01975 0.152171 0.0473979
0.02025 0.152177 0.0476518
0.02075 0.152174 0.0475249
0.02125 0.152174 0.0475249
0.02175 0.152171 0.0473979
0.02225 0.152191 0.0483993
0.02275 0.152192 0.0485191
0.02325 0.15219 0.0482794
0.02375 0.152189 0.0481596
0.02425 0.152177 0.0476518
0.02475 0.152174 0.0475249
0.02525 0.152168 0.047271
0.02575 0.152165 0.0471441
0.02625 0.152165 0.0471441
0.02675 0.152165 0.0471441
0.02725 0.152162 0.0470171
0.02775 0.152162 0.0470171
0.02825 0.152162 0.0470171
0.02875 0.152162 0.0470171
0.02925 0.152159 0.0468902
0.02975 0.152153 0.0466363
0.03025 0.15215 0.0465093
0.03075 0.152153 0.0466363
0.03125 0.152156 0.0467632
0.03175 0.152165 0.0471441
0.03225 0.152171 0.0473979
0.03275 0.15218 0.0477788
0.03325 0.15218 0.0477788
0.03375 0.152177 0.0476518
0.03425 0.152174 0.0475249
0.03475 0.152174 0.0475249
0.03525 0.152171 0.0473979
0.03575 0.152168 0.047271
0.03625 0.152162 0.0470171
0.03675 0.152153 0.0466363
0.03725 0.152147 0.0463824
0.03775 0.152194 0.048639
0.03825 0.152192 0.0485191
0.03875 0.152195 0.0487588
0.03925 0.152191 0.0483993
0.03975 0.152191 0.0483993
0.04025 0.152189 0.0481596
0.04075 0.152177 0.0476518
0.04125 0.152162 0.0470171
0.04175 0.152162 0.0470171
0.04225 0.152162 0.0470171
0.04275 0.152162 0.0470171
0.04325 0.15218 0.0477788
0.04375 0.15219 0.0482794
0.04425 0.152191 0.0483993
0.04475 0.152192 0.0485191
0.04525 0.152194 0.048639
0.04575 0.152194 0.048639
0.04625 0.152194 0.048639
0.04675 0.152194 0.048639
0.04725 0.152192 0.0485191
0.04775 0.152192 0.0485191
0.04825 0.152192 0.0485191
0.04875 0.152191 0.0483993
0.04925 0.152191 0.0483993
0.04975 0.152189 0.0481596
0.05025 0.152177 0.0476518
0.05075 0.152165 0.0471441
0.05125 0.152156 0.0467632
0.05175 0.152147 0.0463824
0.05225 0.152141 0.0461285
0.05275 0.152138 0.0460016
0.05325 0.152132 0.0457477
0.05375 0.152129 0.0456207
0.05425 0.152123 0.0453668
0.05475 0.152117 0.045113
0.05525 0.152105 0.0446052
0.05575 0.152096 0.0442243
0.05625 0.152051 0.0423202
0.05675 0.152045 0.0420663
0.05725 0.152042 0.0419394
0.05775 0.152039 0.0418124
0.05825 0.15203 0.0414316
0.05875 0.152021 0.0410507
0.05925 0.152018 0.0409238
0.05975 0.152012 0.0406699
0.06025 0.152006 0.040416
0.06075 0.152 0.0401621
0.06125 0.151991 0.0397813
0.06175 0.151982 0.0394005
0.06225 0.151973 0.0390196
0.06275 0.151958 0.0383849
0.06325 0.151949 0.0380041
0.06375 0.151924 0.0369885
0.06425 0.151876 0.0349574
-0.0065 0.151828 0.000616021
-0.006 0.15184 0.00129069
-0.0055 0.151845 0.00156056
-0.005 0.151849 0.00183043
-0.0045 0.151859 0.00237016
-0.004 0.151869 0.00290991
-0.0035 0.151871 0.00304485
-0.003 0.151881 0.00358458
-0.0025 0.151883 0.00371952
-0.002 0.151888 0.0039894
-0.0015 0.151893 0.00425926
-0.001 0.151898 0.00452913
-0.0005 0.1519 0.00466406
0 0.151913 0.00533874
0.0005 0.152031 0.0105833
0.001 0.152042 0.0110911
0.0015 0.152136 0.0151532
0.002 0.152166 0.0164227
0.0025 0.152195 0.0176921
0.003 0.152225 0.0189615
0.0035 0.152245 0.0198501
0.004 0.152263 0.0206118
0.0045 0.152274 0.0211195
0.005 0.152283 0.0215004
0.0055 0.152298 0.0221351
0.006 0.152313 0.0227698
0.0065 0.152322 0.0231506
0.007 0.152333 0.0236584
0.0075 0.152345 0.0241661
0.008 0.152351 0.02442
0.0085 0.152363 0.0249278
0.009 0.152369 0.0251817
0.0095 0.152377 0.0255625
0.01 0.152383 0.0258164
0.0105 0.152392 0.0261972
0.011 0.152398 0.0264511
0.0115 0.152407 0.0268319
0.012 0.152413 0.0270858
0.0125 0.152418 0.0273397
0.013 0.152424 0.0275936
0.0135 0.15243 0.0278475
0.014 0.152436 0.0281013
0.0145 0.152442 0.0283552
0.015 0.152448 0.0286091
0.0155 0.152454 0.028863
0.016 0.15246 0.0291169
0.0165 0.152463 0.0292438
0.017 0.152548 0.0329252
0.0175 0.152557 0.033306
0.02 0.152842 0.0456194
0.0205 0.152862 0.046508
0.021 0.152871 0.0468888
0.0215 0.152865 0.0466349
0.022 0.152862 0.046508
0.0225 0.152862 0.046508
0.023 0.152865 0.0466349
0.0235 0.152874 0.0470157
0.024 0.152871 0.0468888
0.0245 0.15285 0.0460002
0.025 0.152853 0.0461271
0.0255 0.152853 0.0461271
0.026 0.152853 0.0461271
0.0265 0.15285 0.0460002
0.027 0.152853 0.0461271
0.0275 0.152856 0.0462541
0.028 0.152856 0.0462541
0.0285 0.152859 0.046381
0.029 0.152859 0.046381
0.0295 0.152856 0.0462541
0.03 0.152856 0.0462541
0.0305 0.152853 0.0461271
0.031 0.152853 0.0461271
0.0315 0.15285 0.0460002
0.032 0.152856 0.0462541
0.0325 0.152862 0.046508
0.033 0.152865 0.0466349
0.0335 0.152865 0.0466349
0.034 0.152865 0.0466349
0.0345 0.152868 0.0467618
0.035 0.152868 0.0467618
0.0355 0.152865 0.0466349
0.036 0.152862 0.046508
0.0365 0.152853 0.0461271
0.037 0.152842 0.0456194
0.0375 0.15283 0.0451116
0.038 0.152821 0.0447308
0.0385 0.152815 0.0444769
0.039 0.152818 0.0446038
0.0395 0.152818 0.0446038
0.04 0.152821 0.0447308
0.0405 0.152827 0.0449846
0.041 0.152836 0.0453655
0.0415 0.152836 0.0453655
0.042 0.152839 0.0454924
0.0425 0.152839 0.0454924
0.043 0.152842 0.0456194
0.0435 0.152853 0.0461271
0.044 0.152874 0.0470157
0.0445 0.15288 0.0472696
0.045 0.152883 0.0473966
0.0455 0.152886 0.0475235
0.046 0.152889 0.0476504
0.0465 0.152889 0.0476504
0.047 0.152889 0.0476504
0.0475 0.152886 0.0475235
0.048 0.15288 0.0472696
0.0485 0.152868 0.0467618
0.049 0.152871 0.0468888
0.0495 0.152847 0.0458732
0.05 0.152845 0.0457463
0.0505 0.152842 0.0456194
0.051 0.152842 0.0456194
0.0515 0.152839 0.0454924
0.052 0.152839 0.0454924
0.0525 0.152839 0.0454924
0.053 0.152836 0.0453655
0.0535 0.152833 0.0452385
0.054 0.15283 0.0451116
0.0545 0.152824 0.0448577
0.055 0.152818 0.0446038
0.0555 0.152803 0.0439691
0.056 0.152751 0.0416842
0.0565 0.152751 0.0416842
0.057 0.152751 0.0416842
0.0575 0.152745 0.0414303
0.058 0.152736 0.0410494
0.0585 0.15273 0.0407956
0.059 0.152727 0.0406686
0.0595 0.152721 0.0404147
0.06 0.152718 0.0402878
0.0605 0.152712 0.0400339
0.061 0.152706 0.03978
0.0615 0.152695 0.0392723
0.062 0.152686 0.0388914
0.0625 0.152671 0.0382567
0.063 0.152665 0.0380028
0.0635 0.152636 0.0367334
-0.00375 0.152598 0.00250429
-0.00325 0.152603 0.00277416
-0.00275 0.152612 0.0033139
-0.00225 0.152617 0.00358377
-0.00175 0.152622 0.00385365
-0.00125 0.152626 0.00412351
-0.00075 0.152631 0.00439339
-0.00025 0.152636 0.00466325
0.00025 0.152643 0.00506806
0.00075 0.15276 0.0104555
0.00125 0.152866 0.0151523
0.00175 0.152889 0.0161678
0.00225 0.15292 0.0175642
0.00275 0.152946 0.0187066
0.00325 0.152966 0.0195952
0.00375 0.15298 0.0202299
0.00425 0.152992 0.0207377
0.00475 0.153003 0.0212454
0.00525 0.153018 0.0218802
0.00575 0.153035 0.0226418
0.00625 0.153046 0.0231496
0.00675 0.153058 0.0236573
0.00725 0.153072 0.024292
0.00775 0.153081 0.0246729
0.00825 0.153087 0.0249267
0.00875 0.153095 0.0253075
0.00925 0.153104 0.0256884
0.00975 0.15311 0.0259422
0.01025 0.153118 0.0263231
0.01075 0.153127 0.0267039
0.01125 0.153133 0.0269578
0.01175 0.153138 0.0272116
0.01225 0.153144 0.0274655
0.01275 0.15315 0.0277194
0.01325 0.153155 0.0279733
0.01375 0.153161 0.0282272
0.01425 0.153164 0.0283541
0.01475 0.153167 0.028481
0.01525 0.153176 0.0288619
0.01575 0.153178 0.0289888
0.01625 0.153184 0.0292427
0.01675 0.153196 0.0297505
0.01725 0.153199 0.0298774
0.01775 0.153204 0.0301313
0.01825 0.153227 0.0311468
0.01875 0.153302 0.0344472
0.02175 0.153451 0.0410481
0.02225 0.153517 0.0439678
0.02275 0.153514 0.0438408
0.02325 0.153517 0.0439678
0.02375 0.153517 0.0439678
0.02425 0.153531 0.0446025
0.02475 0.153534 0.0447294
0.02525 0.153537 0.0448564
0.02575 0.153543 0.0451102
0.02625 0.153546 0.0452372
0.02675 0.153543 0.0451102
0.02725 0.153548 0.0453641
0.02775 0.153551 0.0454911
0.02825 0.153551 0.0454911
0.02875 0.153554 0.045618
0.02925 0.153554 0.045618
0.02975 0.153551 0.0454911
0.03025 0.153548 0.0453641
0.03075 0.153551 0.0454911
0.03125 0.153551 0.0454911
0.03175 0.153548 0.0453641
0.03225 0.153551 0.0454911
0.03275 0.153557 0.0457449
0.03325 0.153557 0.0457449
0.03375 0.153557 0.0457449
0.03425 0.15356 0.0458719
0.03475 0.153557 0.0457449
0.03525 0.153551 0.0454911
0.03575 0.153534 0.0447294
0.03625 0.153528 0.0444755
0.03675 0.153526 0.0443486
0.03725 0.153523 0.0442216
0.03775 0.153526 0.0443486
0.03825 0.153523 0.0442216
0.03875 0.153523 0.0442216
0.03925 0.153523 0.0442216
0.03975 0.153523 0.0442216
0.04025 0.153526 0.0443486
0.04075 0.153526 0.0443486
0.04125 0.153526 0.0443486
0.04175 0.153528 0.0444755
0.04225 0.153526 0.0443486
0.04275 0.153523 0.0442216
0.04325 0.153517 0.0439678
0.04375 0.153511 0.0437139
0.04425 0.153514 0.0438408
0.04475 0.153569 0.0462527
0.04525 0.153571 0.0463796
0.04575 0.153566 0.0461258
0.04625 0.15356 0.0458719
0.04675 0.153554 0.045618
0.04725 0.153557 0.0457449
0.04775 0.153554 0.045618
0.04825 0.153551 0.0454911
0.04875 0.153546 0.0452372
0.04925 0.153543 0.0451102
0.04975 0.15354 0.0449833
0.05025 0.153537 0.0448564
0.05075 0.153537 0.0448564
0.05125 0.153537 0.0448564
0.05175 0.153537 0.0448564
0.05225 0.153534 0.0447294
0.05275 0.153537 0.0448564
0.05325 0.153537 0.0448564
0.05375 0.153534 0.0447294
0.05425 0.153528 0.0444755
0.05475 0.15352 0.0440947
0.05525 0.153451 0.0410481
0.05575 0.153451 0.0410481
0.05625 0.153454 0.0411751
0.05675 0.153451 0.0410481
0.05725 0.153442 0.0406673
0.05775 0.153439 0.0405404
0.05825 0.153437 0.0404134
0.05875 0.153434 0.0402865
0.05925 0.153431 0.0401596
0.05975 0.153425 0.0399057
0.06025 0.153419 0.0396518
0.06075 0.153414 0.0393979
0.06125 0.153405 0.0390171
0.06175 0.153394 0.0385093
0.06225 0.153388 0.0382555
0.06275 0.153374 0.0376208
-0.002 0.153344 0.00304323
-0.0015 0.153351 0.00344803
-0.001 0.153357 0.00385284
-0.0005 0.153362 0.0041227
0 0.153371 0.00466245
0.0005 0.153489 0.0103277
0.001 0.153576 0.0142628
0.0015 0.153609 0.0157861
0.002 0.15364 0.0171824
0.0025 0.153665 0.0183249
0.003 0.153682 0.0190865
0.0035 0.153696 0.0197212
0.004 0.153707 0.0202289
0.0045 0.153715 0.0206098
0.005 0.153721 0.0208636
0.0055 0.153757 0.0225138
0.006 0.153771 0.0231485
0.0065 0.153783 0.0236563
0.007 0.153794 0.024164
0.0075 0.153805 0.0246718
0.008 0.153811 0.0249256
0.0085 0.153819 0.0253065
0.009 0.153827 0.0256873
0.0095 0.153833 0.0259412
0.01 0.153841 0.026322
0.0105 0.153847 0.0265759
0.011 0.153855 0.0269567
0.0115 0.153861 0.0272105
0.012 0.153867 0.0274644
0.0125 0.153872 0.0277183
0.013 0.153878 0.0279722
0.0135 0.153881 0.0280991
0.014 0.153886 0.028353
0.0145 0.153892 0.0286069
0.015 0.153895 0.0287338
0.0155 0.1539 0.0289877
0.016 0.153906 0.0292416
0.0165 0.153909 0.0293685
0.017 0.153914 0.0296224
0.0175 0.153923 0.0300032
0.018 0.153931 0.030384
0.0185 0.153934 0.0305109
0.019 0.154001 0.0335575
0.0195 0.153993 0.0331767
0.022 0.154158 0.040666
0.0225 0.154169 0.0411738
0.023 0.1542 0.0425701
0.0235 0.154205 0.042824
0.024 0.1542 0.0425701
0.0245 0.154222 0.0435856
0.025 0.15423 0.0439664
0.0255 0.154233 0.0440934
0.026 0.154239 0.0443473
0.0265 0.154244 0.0446011
0.027 0.154242 0.0444742
0.0275 0.154242 0.0444742
0.028 0.154244 0.0446011
0.0285 0.154247 0.0447281
0.029 0.154247 0.0447281
0.0295 0.154244 0.0446011
0.03 0.154244 0.0446011
0.0305 0.154244 0.0446011
0.031 0.154242 0.0444742
0.0315 0.154242 0.0444742
0.032 0.154242 0.0444742
0.0325 0.154242 0.0444742
0.033 0.154239 0.0443473
0.0335 0.154239 0.0443473
0.034 0.15423 0.0439664
0.0345 0.154228 0.0438395
0.035 0.154222 0.0435856
0.0355 0.154225 0.0437125
0.036 0.154225 0.0437125
0.0365 0.154225 0.0437125
0.037 0.154225 0.0437125
0.0375 0.154225 0.0437125
0.038 0.154225 0.0437125
0.0385 0.154225 0.0437125
0.039 0.154228 0.0438395
0.0395 0.154228 0.0438395
0.04 0.154228 0.0438395
0.0405 0.154228 0.0438395
0.041 0.15423 0.0439664
0.0415 0.154228 0.0438395
0.042 0.154225 0.0437125
0.0425 0.154222 0.0435856
0.043 0.154219 0.0434587
0.0435 0.154211 0.0430779
0.044 0.154208 0.0429509
0.0445 0.154202 0.042697
0.045 0.154197 0.0424432
0.0455 0.154191 0.0421893
0.046 0.154188 0.0420624
0.0465 0.154242 0.0444742
0.047 0.154242 0.0444742
0.0475 0.154247 0.0447281
0.048 0.154244 0.0446011
0.0485 0.154242 0.0444742
0.049 0.154239 0.0443473
0.0495 0.154236 0.0442203
0.05 0.154233 0.0440934
0.0505 0.154233 0.0440934
0.051 0.15423 0.0439664
0.0515 0.154233 0.0440934
0.052 0.15423 0.0439664
0.0525 0.15423 0.0439664
0.053 0.15423 0.0439664
0.0535 0.154146 0.0401583
0.054 0.154149 0.0402852
0.0545 0.154152 0.0404122
0.055 0.154152 0.0404122
0.0555 0.154155 0.0405391
0.056 0.154146 0.0401583
0.0565 0.154146 0.0401583
0.057 0.154144 0.0400313
0.0575 0.154141 0.0399044
0.058 0.154141 0.0399044
0.0585 0.154135 0.0396505
0.059 0.154132 0.0395236
0.0595 0.154127 0.0392697
0.06 0.154124 0.0391428
0.0605 0.154118 0.0388889
0.061 0.154105 0.0382542
0.0615 0.154102 0.0381273
0.062 0.154099 0.0380003
0.0625 0.153923 0.0300032
0.00025 0.154098 0.00412189
0.00075 0.154311 0.0145158
0.00125 0.154335 0.0156582
0.00175 0.154363 0.0169276
0.00225 0.154379 0.0176892
0.00275 0.154395 0.0184508
0.00325 0.154406 0.0189586
0.00375 0.15442 0.0195932
0.00425 0.154428 0.0199741
0.00475 0.154434 0.0202279
0.00525 0.154464 0.0216242
0.00575 0.154494 0.0230205
0.00625 0.154505 0.0235283
0.00675 0.154516 0.024036
0.00725 0.154529 0.0246707
0.00775 0.154537 0.0250515
0.00825 0.154543 0.0253054
0.00875 0.154551 0.0256862
0.00925 0.154559 0.026067
0.00975 0.154565 0.0263209
0.01025 0.15457 0.0265748
0.01075 0.154578 0.0269556
0.01125 0.154584 0.0272094
0.01175 0.154589 0.0274633
0.01225 0.154595 0.0277172
0.01275 0.1546 0.0279711
0.01325 0.1546 0.0279711
0.01375 0.154606 0.0282249
0.01425 0.154611 0.0284788
0.01475 0.154616 0.0287327
0.01525 0.154619 0.0288596
0.01575 0.154625 0.0291135
0.01625 0.154627 0.0292404
0.01675 0.154633 0.0294943
0.01725 0.154638 0.0297482
0.01775 0.154647 0.030129
0.01825 0.154649 0.0302559
0.01875 0.154655 0.0305098
0.01925 0.154655 0.0305098
0.01975 0.154657 0.0306367
0.02025 0.154655 0.0305098
0.02075 0.154649 0.0302559
0.02275 0.154848 0.0395223
0.02325 0.154873 0.0406647
0.02375 0.154878 0.0409186
0.02425 0.15487 0.0405378
0.02475 0.154857 0.0399031
0.02525 0.154919 0.0428227
0.02575 0.154928 0.0432035
0.02625 0.15493 0.0433304
0.02675 0.154936 0.0435843
0.02725 0.154941 0.0438382
0.02775 0.154944 0.0439651
0.02825 0.154944 0.0439651
0.02875 0.154947 0.044092
0.02925 0.154944 0.0439651
0.02975 0.154941 0.0438382
0.03025 0.154941 0.0438382
0.03075 0.154941 0.0438382
0.03125 0.154941 0.0438382
0.03175 0.154938 0.0437112
0.03225 0.154938 0.0437112
0.03275 0.154936 0.0435843
0.03325 0.15493 0.0433304
0.03375 0.154925 0.0430765
0.03425 0.154922 0.0429496
0.03475 0.154919 0.0428227
0.03525 0.154922 0.0429496
0.03575 0.154922 0.0429496
0.03625 0.154922 0.0429496
0.03675 0.154922 0.0429496
0.03725 0.154922 0.0429496
0.03775 0.154925 0.0430765
0.03825 0.154928 0.0432035
0.03875 0.154928 0.0432035
0.03925 0.154928 0.0432035
0.03975 0.15493 0.0433304
0.04025 0.15493 0.0433304
0.04075 0.15493 0.0433304
0.04125 0.154933 0.0434574
0.04175 0.154928 0.0432035
0.04225 0.154928 0.0432035
0.04275 0.154925 0.0430765
0.04325 0.154919 0.0428227
0.04375 0.154914 0.0425688
0.04425 0.154908 0.0423149
0.04475 0.154903 0.0420611
0.04525 0.154898 0.0418072
0.04575 0.154892 0.0415533
0.04625 0.154889 0.0414264
0.04675 0.154884 0.0411725
0.04725 0.154881 0.0410456
0.04775 0.154805 0.0374913
0.04825 0.154928 0.0432035
0.04875 0.154928 0.0432035
0.04925 0.154928 0.0432035
0.04975 0.154925 0.0430765
0.05025 0.154925 0.0430765
0.05075 0.154919 0.0428227
0.05125 0.154919 0.0428227
0.05175 0.154843 0.0392684
0.05225 0.154848 0.0395223
0.05275 0.154851 0.0396492
0.05325 0.154854 0.0397762
0.05375 0.154854 0.0397762
0.05425 0.154854 0.0397762
0.05475 0.154854 0.0397762
0.05525 0.154854 0.0397762
0.05575 0.154846 0.0393954
